10.0703 5.6468 1.8027   255 
10.1044 5.6463 1.8026   255 
10.1149 5.6459 1.8024   255 
10.1226 5.6446 1.8023   255 
10.1344 5.6461 1.8027   255 
10.2568 5.6458 1.8025   255 
10.3226 5.6462 1.8025   255 
10.3515 5.6458 1.8026   255 
10.3645 5.6461 1.8026   255 
10.3958 5.6453 1.8025   255 
10.4002 5.6465 1.8025   255 
10.4051 5.6457 1.8025   255 
10.4194 5.6454 1.8026   255 
10.4426 5.6462 1.8026   255 
10.4619 5.6464 1.8027   255 
10.4998 5.6463 1.8029   255 
13.8203 5.0829 1.8020   255 
13.8244 5.0791 1.8018   255 
13.8907 5.0888 1.8018   255 
13.9148 5.0896 1.8020   255 
13.9903 5.1001 1.8021   255 
13.9958 5.1003 1.8019   255 
14.0076 5.0935 1.8018   255 
14.0175 5.0951 1.8019   255 
14.0233 5.0986 1.8018   255 
14.0545 5.0987 1.8018   255 
14.0715 5.1002 1.8019   255 
14.1592 5.0942 1.8019   255 
14.2280 5.0973 1.8019   255 
14.2391 5.0956 1.8018   255 
14.2838 5.0978 1.8019   255 
14.3185 5.0982 1.8020   255 
14.3305 5.0988 1.8021   255 
14.3375 5.0973 1.8023   255 
14.3393 5.0939 1.8022   255 
14.3402 5.0956 1.8018   255 
14.3534 5.0899 1.8020   255 
14.3622 5.0898 1.8019   255 
14.4060 5.0794 1.8023   255 
14.4061 5.0827 1.8019   255 
14.4138 5.0770 1.8019   255 
14.4273 5.0920 1.8019   255 
14.4316 5.0943 1.8019   255 
14.4536 5.0902 1.8020   255 
14.4547 5.0942 1.8018   255 
14.4548 5.0908 1.8022   255 
14.5692 5.0950 1.8019   255 
14.5712 5.0908 1.8018   255 
14.5763 5.0883 1.8022   255 
14.5807 5.0836 1.8018   255 
11.8534 5.6372 1.8018   255 
11.8846 5.6371 1.8022   255 
11.9022 5.6376 1.8018   255 
11.9596 5.6360 1.8018   255 
12.0090 5.6354 1.8020   255 
12.0542 5.6331 1.8021   255 
13.8427 5.1004 1.8020   255 
14.0977 5.6377 1.8018   255 
14.1077 5.1018 1.8018   255 
14.1277 5.6376 1.8020   255 
14.2396 5.6375 1.8019   255 
14.2466 5.6371 1.8022   255 
14.2510 5.6365 1.8019   255 
14.2822 5.1024 1.8018   255 
14.3060 5.6364 1.8021   255 
14.3290 5.1003 1.8018   255 
14.3712 5.6357 1.8019   255 
14.3890 5.6351 1.8018   255 
14.4067 5.6348 1.8018   255 
14.4410 5.1062 1.8021   255 
14.4508 5.1061 1.8019   255 
14.4767 5.1075 1.8019   255 
14.4794 5.1080 1.8019   255 
14.4851 5.1124 1.8019   255 
14.4864 5.6344 1.8018   255 
14.4905 5.6339 1.8018   255 
14.4972 5.1147 1.8019   255 
14.5380 5.6358 1.8018   255 
14.5597 5.6345 1.8021   255 
14.6001 5.6330 1.8018   255 
14.6068 5.6324 1.8018   255 
14.6298 5.6314 1.8023   255 
14.6526 5.6314 1.8022   255 
14.6596 5.6324 1.8022   255 
14.6825 5.0944 1.8020   255 
14.6892 5.0931 1.8019   255 
14.6895 5.0941 1.8021   255 
14.6964 5.0939 1.8021   255 
14.7330 5.0935 1.8018   255 
14.7511 5.0962 1.8023   255 
14.7734 5.0951 1.8019   255 
14.7971 5.0946 1.8018   255 
14.8211 5.0959 1.8018   255 
14.9178 5.0939 1.8018   255 
14.9310 5.0928 1.8022   255 
14.9825 5.1003 1.8020   255 
14.9827 5.0983 1.8020   255 
14.9912 5.0970 1.8018   255 
15.0017 5.0952 1.8020   255 
15.0146 5.0953 1.8020   255 
15.0334 5.0981 1.8020   255 
15.0438 5.0951 1.8022   255 
15.0502 5.0953 1.8021   255 
15.1041 5.0925 1.8018   255 
15.1356 5.0898 1.8020   255 
15.4004 5.6213 1.8022   255 
15.4633 5.6212 1.8018   255 
15.5411 5.6204 1.8021   255 
15.5660 5.6213 1.8019   255 
15.6134 5.6208 1.8019   255 
15.6724 5.6202 1.8021   255 
15.7394 5.6196 1.8019   255 
15.8245 5.6149 1.8020   255 
15.8301 5.6161 1.8022   255 
15.8557 5.6165 1.8020   255 
15.8610 5.6140 1.8022   255 
15.8976 5.6122 1.8019   255 
15.9043 5.6124 1.8021   255 
14.6950 5.6328 1.8020   255 
14.7588 5.6322 1.8018   255 
14.7667 5.6328 1.8022   255 
14.8276 5.6303 1.8019   255 
14.8507 5.6312 1.8018   255 
14.9359 5.6295 1.8018   255 
14.9386 5.6280 1.8022   255 
14.9581 5.6266 1.8022   255 
14.9717 5.6274 1.8021   255 
14.9827 5.6273 1.8021   255 
14.9906 5.6279 1.8018   255 
15.0189 5.6271 1.8022   255 
15.0645 5.6280 1.8020   255 
15.0795 5.6270 1.8022   255 
15.0922 5.6277 1.8020   255 
15.1465 5.6274 1.8019   255 
15.1839 5.6291 1.8021   255 
15.2340 5.6253 1.8020   255 
15.2648 5.6254 1.8018   255 
15.2907 5.6247 1.8023   255 
15.3722 5.6240 1.8022   255 
15.4021 5.6227 1.8018   255 
15.4089 5.6215 1.8021   255 
15.4246 5.6214 1.8018   255 
15.4523 5.6232 1.8018   255 
15.4745 5.6240 1.8021   255 
15.4866 5.6228 1.8018   255 
15.4999 5.6236 1.8018   255 
15.5607 5.6215 1.8018   255 
15.5885 5.6227 1.8018   255 
15.5955 5.6214 1.8019   255 
15.6020 5.6223 1.8020   255 
15.9184 5.6365 1.8018   255 
15.9192 5.6293 1.8021   255 
13.8995 5.0880 1.8025   255 
13.9516 5.0933 1.8029   255 
14.0118 5.0950 1.8028   255 
14.0656 5.0969 1.8029   255 
14.1375 5.0916 1.8028   255 
14.2655 5.0957 1.8026   255 
14.3416 5.0913 1.8025   255 
14.3834 5.0902 1.8023   255 
14.3894 5.0906 1.8024   255 
14.3954 5.0909 1.8024   255 
14.4558 5.0871 1.8023   255 
14.4614 5.0854 1.8030   255 
14.5416 5.0864 1.8025   255 
14.5568 5.0865 1.8028   255 
14.5580 5.0948 1.8023   255 
14.5736 5.0880 1.8028   255 
14.5832 5.0774 1.8027   255 
14.6034 5.0803 1.8024   255 
14.6070 5.0839 1.8026   255 
14.6130 5.0840 1.8027   255 
14.6163 5.0819 1.8027   255 
14.6190 5.0841 1.8028   255 
14.6310 5.0853 1.8029   255 
14.6370 5.0854 1.8030   255 
14.6600 5.0866 1.8024   255 
14.6668 5.0889 1.8024   255 
14.7015 5.0949 1.8027   255 
14.7039 5.0932 1.8026   255 
14.7249 5.0947 1.8029   255 
14.7270 5.0937 1.8029   255 
14.7309 5.0952 1.8027   255 
14.7459 5.0951 1.8025   255 
14.7551 5.0957 1.8023   255 
14.7666 5.0958 1.8027   255 
11.7135 5.6376 1.8028   255 
11.9062 5.6368 1.8028   255 
11.9646 5.6359 1.8025   255 
12.0192 5.6350 1.8025   255 
13.8292 5.1038 1.8029   255 
14.0198 5.6376 1.8024   255 
14.0450 5.1002 1.8026   255 
14.0465 5.1004 1.8026   255 
14.0475 5.0975 1.8024   255 
14.0839 5.0977 1.8027   255 
14.1014 5.0990 1.8029   255 
14.1148 5.6373 1.8024   255 
14.1746 5.6374 1.8024   255 
14.1973 5.0977 1.8026   255 
14.2741 5.6336 1.8023   255 
14.3170 5.6368 1.8023   255 
14.3641 5.6371 1.8025   255 
14.4143 5.6317 1.8024   255 
14.4329 5.6355 1.8027   255 
14.4440 5.1039 1.8027   255 
14.4560 5.6339 1.8029   255 
14.4573 5.6356 1.8024   255 
14.4721 5.0987 1.8030   255 
14.4762 5.6340 1.8029   255 
14.4913 5.6348 1.8024   255 
14.5043 5.6335 1.8026   255 
14.5095 5.1146 1.8027   255 
14.5153 5.1132 1.8027   255 
14.5382 5.6332 1.8024   255 
14.5719 5.6353 1.8024   255 
14.5762 5.6338 1.8027   255 
14.6347 5.6318 1.8024   255 
14.6417 5.6314 1.8026   255 
14.7439 5.6323 1.8025   255 
14.8277 5.1000 1.8027   255 
14.8333 5.0977 1.8024   255 
14.8338 5.1003 1.8029   255 
14.9195 5.0953 1.8026   255 
14.9600 5.0944 1.8026   255 
14.9763 5.0969 1.8029   255 
15.0096 5.0948 1.8023   255 
15.0388 5.0966 1.8028   255 
15.0480 5.0939 1.8023   255 
15.0552 5.0961 1.8024   255 
15.0616 5.1005 1.8023   255 
15.0627 5.0992 1.8023   255 
15.0687 5.0980 1.8025   255 
15.0757 5.0940 1.8023   255 
15.0866 5.0942 1.8025   255 
15.0930 5.0924 1.8030   255 
15.1093 5.0935 1.8029   255 
15.1225 5.0932 1.8023   255 
15.1418 5.0817 1.8027   255 
15.1503 5.0795 1.8028   255 
15.1589 5.0890 1.8026   255 
15.1953 5.0985 1.8029   255 
15.2075 5.0981 1.8028   255 
15.2130 5.0871 1.8026   255 
15.2137 5.0807 1.8026   255 
15.3926 5.6214 1.8023   255 
15.4167 5.6215 1.8027   255 
15.7157 5.6195 1.8024   255 
15.7756 5.6177 1.8024   255 
15.8118 5.6153 1.8025   255 
15.8413 5.6158 1.8028   255 
15.8487 5.6161 1.8023   255 
15.9142 5.6145 1.8024   255 
15.9174 5.6164 1.8025   255 
14.8594 5.6308 1.8027   255 
14.8763 5.6274 1.8023   255 
14.9061 5.6303 1.8026   255 
14.9182 5.6311 1.8025   255 
14.9718 5.6308 1.8029   255 
14.9943 5.6286 1.8028   255 
15.0379 5.6284 1.8025   255 
15.0434 5.6280 1.8028   255 
15.0555 5.6281 1.8023   255 
15.0621 5.6278 1.8026   255 
15.0971 5.6275 1.8026   255 
15.1220 5.6283 1.8028   255 
15.1288 5.6281 1.8023   255 
15.1312 5.6272 1.8029   255 
15.1426 5.6282 1.8027   255 
15.1504 5.6281 1.8029   255 
15.1777 5.6285 1.8024   255 
15.1812 5.6271 1.8029   255 
15.1865 5.6282 1.8023   255 
15.2056 5.6272 1.8028   255 
15.2113 5.6271 1.8026   255 
15.2179 5.6290 1.8027   255 
15.2262 5.6283 1.8025   255 
15.2835 5.6250 1.8029   255 
15.3326 5.6248 1.8030   255 
15.4361 5.6218 1.8025   255 
15.4783 5.6220 1.8025   255 
15.5223 5.6218 1.8025   255 
15.5299 5.6219 1.8026   255 
15.5383 5.6220 1.8029   255 
15.5840 5.6218 1.8029   255 
15.5944 5.6229 1.8025   255 
15.6043 5.6216 1.8026   255 
15.6162 5.6222 1.8026   255 
11.5861 5.6394 1.8023   255 
11.6592 5.6401 1.8022   255 
11.6911 5.6401 1.8021   255 
11.7064 5.6388 1.8019   255 
11.7379 5.6377 1.8019   255 
11.7865 5.6382 1.8021   255 
11.7936 5.6383 1.8021   255 
11.9129 5.6378 1.8023   255 
12.0588 5.6731 1.8022   255 
12.0611 5.6937 1.8019   255 
13.0424 5.6604 1.8018   255 
13.0438 5.6466 1.8019   255 
13.0838 5.6404 1.8020   255 
13.0876 5.6393 1.8020   255 
13.1107 5.6407 1.8023   255 
13.1647 5.6441 1.8018   255 
13.1723 5.6446 1.8021   255 
13.2505 5.6454 1.8020   255 
13.2742 5.6444 1.8018   255 
13.3392 5.6441 1.8022   255 
13.3568 5.6433 1.8018   255 
13.3749 5.6430 1.8019   255 
13.3983 5.6426 1.8022   255 
13.4114 5.6419 1.8018   255 
13.4423 5.6430 1.8020   255 
13.4436 5.6393 1.8019   255 
13.4736 5.6419 1.8020   255 
13.4950 5.6395 1.8022   255 
13.5005 5.6411 1.8019   255 
13.5349 5.6419 1.8023   255 
13.5450 5.6423 1.8019   255 
13.5540 5.6409 1.8019   255 
13.6036 5.6412 1.8022   255 
13.6321 5.6386 1.8018   255 
12.0858 5.7027 1.8019   255 
12.1282 5.7008 1.8018   255 
12.2246 5.7022 1.8019   255 
12.2812 5.6998 1.8020   255 
12.3141 5.7019 1.8021   255 
12.3635 5.7019 1.8023   255 
12.3691 5.7017 1.8021   255 
12.4160 5.7021 1.8021   255 
12.4471 5.7016 1.8023   255 
12.4871 5.7023 1.8019   255 
12.5113 5.7018 1.8023   255 
12.5307 5.7019 1.8022   255 
12.5420 5.7017 1.8019   255 
12.5606 5.7006 1.8021   255 
12.6087 5.7002 1.8023   255 
12.6144 5.7001 1.8021   255 
12.6248 5.7012 1.8018   255 
12.6376 5.7002 1.8021   255 
12.6693 5.7002 1.8022   255 
12.6985 5.7004 1.8023   255 
12.6988 5.6994 1.8020   255 
12.7030 5.7005 1.8018   255 
12.7345 5.6997 1.8021   255 
12.7718 5.6994 1.8021   255 
12.7756 5.6985 1.8020   255 
12.7812 5.6985 1.8019   255 
12.8064 5.7014 1.8018   255 
12.8344 5.7021 1.8023   255 
12.8541 5.6991 1.8020   255 
12.8960 5.6975 1.8020   255 
12.9328 5.6976 1.8019   255 
12.9377 5.6971 1.8018   255 
12.9582 5.6975 1.8021   255 
13.0094 5.6962 1.8021   255 
13.7290 5.6398 1.8018   255 
13.7372 5.6396 1.8023   255 
13.7464 5.6397 1.8019   255 
13.7548 5.6398 1.8022   255 
13.7973 5.6395 1.8021   255 
13.8029 5.6390 1.8023   255 
13.8084 5.6397 1.8021   255 
13.8370 5.6392 1.8023   255 
13.9082 5.6391 1.8022   255 
13.9339 5.6382 1.8019   255 
13.9497 5.6403 1.8023   255 
13.9716 5.6385 1.8018   255 
13.9763 5.6386 1.8020   255 
13.9828 5.6377 1.8023   255 
14.0370 5.6380 1.8019   255 
14.0776 5.6378 1.8021   255 
14.1025 5.6378 1.8020   255 
14.1681 5.6382 1.8021   255 
15.9164 5.6401 1.8020   255 
16.0091 5.6904 1.8018   255 
16.0394 5.6900 1.8021   255 
16.0565 5.6903 1.8019   255 
16.0931 5.6912 1.8022   255 
16.1416 5.6904 1.8023   255 
16.2244 5.6912 1.8021   255 
16.2346 5.6917 1.8022   255 
16.2486 5.6908 1.8019   255 
16.2730 5.6911 1.8023   255 
16.5004 5.6905 1.8022   255 
16.5479 5.8021 1.8019   255 
16.5539 5.7266 1.8020   255 
16.5542 5.7521 1.8022   255 
16.5960 5.8134 1.8018   255 
16.6177 5.8204 1.8019   255 
16.6568 5.8256 1.8018   255 
16.6816 5.8337 1.8022   255 
16.6865 5.8340 1.8020   255 
16.7016 5.8382 1.8022   255 
16.7345 5.8430 1.8022   255 
16.7698 5.8572 1.8021   255 
16.7702 5.8543 1.8018   255 
16.7716 5.8578 1.8019   255 
16.8307 5.8734 1.8018   255 
16.8438 5.8788 1.8021   255 
16.8776 5.8923 1.8023   255 
16.9327 5.9145 1.8022   255 
16.9633 5.9272 1.8021   255 
16.9826 5.9374 1.8020   255 
17.0663 5.9808 1.8023   255 
17.0736 5.9844 1.8020   255 
17.1251 6.0145 1.8022   255 
17.1707 6.0482 1.8020   255 
17.1738 6.0506 1.8021   255 
17.1828 6.0613 1.8023   255 
17.2343 6.1036 1.8018   255 
17.2501 6.1170 1.8018   255 
17.2688 6.1344 1.8019   255 
17.2806 6.1404 1.8019   255 
17.3408 6.2038 1.8022   255 
17.3753 6.2414 1.8019   255 
17.4067 6.2736 1.8022   255 
17.4188 6.2961 1.8019   255 
17.4235 6.3031 1.8020   255 
17.4309 6.3072 1.8021   255 
17.4491 6.3306 1.8022   255 
17.4919 6.4082 1.8023   255 
17.5081 6.4275 1.8019   255 
17.5596 6.5343 1.8022   255 
11.6035 5.6404 1.8027   255 
11.6671 5.6404 1.8026   255 
11.6780 5.6385 1.8028   255 
11.6915 5.6389 1.8026   255 
11.7737 5.6385 1.8027   255 
11.8761 5.6377 1.8030   255 
12.0594 5.6645 1.8027   255 
12.0604 5.6746 1.8028   255 
13.0422 5.6527 1.8027   255 
13.0441 5.6413 1.8027   255 
13.0443 5.6543 1.8023   255 
13.1809 5.6454 1.8028   255 
13.2968 5.6441 1.8026   255 
13.3143 5.6448 1.8026   255 
13.3202 5.6450 1.8024   255 
13.4180 5.6433 1.8028   255 
13.4791 5.6430 1.8030   255 
13.5614 5.6388 1.8027   255 
13.6090 5.6383 1.8024   255 
13.6629 5.6411 1.8025   255 
13.7162 5.6401 1.8024   255 
13.7432 5.6398 1.8024   255 
13.7657 5.6401 1.8028   255 
13.7811 5.6400 1.8024   255 
13.8081 5.6401 1.8024   255 
13.8449 5.6402 1.8025   255 
13.8558 5.6401 1.8025   255 
13.8736 5.6394 1.8024   255 
13.9010 5.6402 1.8025   255 
13.9223 5.6405 1.8024   255 
13.9287 5.6378 1.8026   255 
13.9798 5.6409 1.8028   255 
13.9875 5.6378 1.8025   255 
14.1790 5.6384 1.8025   255 
12.0598 5.6820 1.8024   255 
12.0933 5.7012 1.8028   255 
12.1027 5.7022 1.8028   255 
12.1111 5.7030 1.8029   255 
12.1392 5.7028 1.8026   255 
12.2138 5.7021 1.8024   255 
12.2486 5.7012 1.8028   255 
12.2980 5.7018 1.8027   255 
12.3324 5.7017 1.8028   255 
12.3569 5.7017 1.8025   255 
12.3723 5.7017 1.8024   255 
12.4356 5.7023 1.8028   255 
12.4989 5.7029 1.8028   255 
12.5178 5.7027 1.8030   255 
12.5661 5.7017 1.8024   255 
12.5895 5.6993 1.8028   255 
12.5959 5.7013 1.8026   255 
12.6190 5.7003 1.8028   255 
12.6604 5.7002 1.8030   255 
12.6729 5.7004 1.8027   255 
12.6810 5.6991 1.8026   255 
12.7296 5.7015 1.8030   255 
12.7532 5.6999 1.8026   255 
12.7947 5.7000 1.8024   255 
12.8662 5.7013 1.8029   255 
12.8700 5.6986 1.8026   255 
12.8768 5.6981 1.8029   255 
12.9131 5.6986 1.8026   255 
12.9182 5.6962 1.8024   255 
12.9904 5.6970 1.8029   255 
13.0425 5.6776 1.8026   255 
15.9326 5.6896 1.8027   255 
15.9386 5.6890 1.8026   255 
15.9843 5.6901 1.8027   255 
16.0445 5.6908 1.8028   255 
16.0661 5.6904 1.8024   255 
16.0983 5.6911 1.8028   255 
16.1056 5.6896 1.8027   255 
16.1642 5.6907 1.8027   255 
16.3143 5.6917 1.8024   255 
16.3205 5.6935 1.8026   255 
16.3406 5.6922 1.8029   255 
16.4351 5.6923 1.8026   255 
16.4607 5.6927 1.8027   255 
16.4645 5.6912 1.8028   255 
16.5090 5.6902 1.8025   255 
16.5544 5.7378 1.8026   255 
16.5678 5.8076 1.8024   255 
16.6157 5.8179 1.8024   255 
16.6219 5.8187 1.8025   255 
16.6441 5.8239 1.8025   255 
16.7042 5.8374 1.8029   255 
16.7411 5.8464 1.8027   255 
16.8310 5.8742 1.8027   255 
16.8471 5.8820 1.8028   255 
16.8492 5.8792 1.8026   255 
16.8568 5.8841 1.8024   255 
16.8618 5.8857 1.8025   255 
16.8729 5.8894 1.8025   255 
16.8799 5.8927 1.8030   255 
16.9088 5.9026 1.8026   255 
16.9922 5.9387 1.8029   255 
17.0006 5.9446 1.8024   255 
17.0037 5.9470 1.8024   255 
17.0068 5.9493 1.8025   255 
17.0100 5.9507 1.8025   255 
17.0248 5.9566 1.8029   255 
17.0310 5.9614 1.8030   255 
17.1150 6.0122 1.8024   255 
17.1365 6.0223 1.8028   255 
17.1376 6.0251 1.8028   255 
17.1465 6.0313 1.8028   255 
17.1623 6.0440 1.8030   255 
17.2047 6.0752 1.8025   255 
17.2171 6.0851 1.8026   255 
17.2202 6.0876 1.8027   255 
17.2259 6.0975 1.8025   255 
17.2275 6.0957 1.8027   255 
17.2306 6.0982 1.8027   255 
17.2337 6.1007 1.8028   255 
17.2399 6.1056 1.8029   255 
17.2684 6.1300 1.8024   255 
17.2741 6.1366 1.8026   255 
17.2807 6.1457 1.8028   255 
17.2912 6.1567 1.8024   255 
17.3035 6.1680 1.8025   255 
17.3639 6.2283 1.8026   255 
17.3843 6.2493 1.8029   255 
17.3964 6.2660 1.8025   255 
17.4096 6.2779 1.8025   255 
17.4120 6.2807 1.8023   255 
17.4441 6.3308 1.8025   255 
17.4488 6.3378 1.8027   255 
17.4720 6.3749 1.8026   255 
17.4782 6.3849 1.8025   255 
17.4904 6.4051 1.8025   255 
17.5025 6.4252 1.8025   255 
17.5145 6.4453 1.8025   255 
17.5510 6.5095 1.8029   255 
17.5511 6.5150 1.8025   255 
17.5583 6.5253 1.8027   255 
17.5594 6.5286 1.8027   255 
17.7689 -6.6813 1.7972   255 
17.7720 -6.6917 1.7982   255 
17.7744 -6.6932 1.7973   255 
17.7824 -6.7213 1.7973   255 
17.8893 -6.8192 1.7983   255 
17.9134 -6.8201 1.7975   255 
17.9182 -6.8188 1.7974   255 
17.9242 -6.8190 1.7971   255 
18.1059 -6.8224 1.7988   255 
18.1090 -6.8222 1.7970   255 
18.1474 -6.8222 1.7977   255 
18.1686 -6.8211 1.7980   255 
18.1716 -6.8223 1.7971   255 
18.1934 -6.8222 1.7973   255 
18.2141 -6.8224 1.7993   255 
18.2388 -6.8230 1.7985   255 
18.2690 -6.8227 1.7977   255 
18.2828 -6.8211 1.7975   255 
18.2883 -6.8208 1.7976   255 
18.2884 -6.8220 1.7970   255 
18.3002 -6.8221 1.7980   255 
18.3277 -6.8211 1.7972   255 
18.3319 -6.8216 1.7981   255 
18.3369 -6.8222 1.7978   255 
18.3529 -6.8222 1.7984   255 
18.3592 -6.8224 1.7974   255 
18.3710 -6.8222 1.7989   255 
18.3792 -6.8221 1.7978   255 
18.4015 -6.8221 1.7979   255 
18.4047 -6.8221 1.7978   255 
18.4231 -6.8209 1.7985   255 
18.4409 -6.8223 1.7978   255 
18.4460 -6.8215 1.7971   255 
18.4469 -6.8227 1.7976   255 
18.4632 -6.8221 1.7978   255 
17.5845 -6.2883 1.7971   255 
17.6100 -6.3250 1.7989   255 
17.6104 -6.3233 1.7973   255 
17.6168 -6.3343 1.7982   255 
17.6278 -6.3615 1.7977   255 
17.6776 -6.4479 1.7990   255 
17.6940 -6.4870 1.7993   255 
17.7387 -6.5998 1.7970   255 
17.7537 -6.6420 1.7987   255 
17.7598 -6.6569 1.7970   255 
17.7616 -6.6631 1.7971   255 
17.7626 -6.6595 1.7972   255 
18.1025 -5.8549 1.7980   255 
18.1140 -5.8623 1.7977   255 
18.2917 -5.9289 1.7979   255 
18.2962 -5.9302 1.7983   255 
18.3252 -5.9393 1.7978   255 
18.3377 -5.9460 1.7972   255 
18.3473 -5.9475 1.7991   255 
18.3897 -5.9584 1.7990   255 
18.4061 -5.9988 1.7975   255 
18.4506 -6.1477 1.7987   255 
18.4561 -6.1305 1.7987   255 
18.4647 -6.0773 1.7992   255 
18.4741 -6.0826 1.7971   255 
18.4741 -6.0773 1.7974   255 
18.4743 -6.1012 1.7980   255 
18.4745 -6.1146 1.7993   255 
18.4745 -6.0890 1.7983   255 
18.4801 -5.9977 1.7972   255 
18.4801 -5.9932 1.7971   255 
18.4802 -6.0097 1.7986   255 
18.4802 -6.0058 1.7982   255 
18.4804 -6.0149 1.7980   255 
18.5788 -6.8215 1.7974   255 
18.5894 -6.8233 1.7970   255 
18.5905 -6.8217 1.7973   255 
18.6126 -6.8234 1.7973   255 
18.6445 -6.8242 1.7970   255 
18.8079 -6.1228 1.7979   255 
18.8102 -6.1426 1.7976   255 
18.8111 -6.1316 1.7970   255 
18.8113 -6.1493 1.7974   255 
18.8161 -6.1193 1.7977   255 
18.8164 -6.1068 1.7977   255 
18.8166 -6.1232 1.7989   255 
18.8172 -6.1125 1.7984   255 
18.8229 -6.1084 1.7991   255 
18.8233 -6.1017 1.7990   255 
18.8483 -6.1561 1.7985   255 
18.9274 -6.1560 1.7978   255 
18.9305 -6.1558 1.7979   255 
18.9366 -6.1555 1.7982   255 
19.0091 -6.1627 1.7976   255 
19.0333 -6.1637 1.7972   255 
19.0524 -6.7733 1.7980   255 
19.0583 -6.7722 1.7973   255 
19.0926 -6.7728 1.7973   255 
19.0994 -6.7737 1.7971   255 
19.1108 -6.7741 1.7972   255 
19.1118 -6.1620 1.7982   255 
19.1289 -6.7745 1.7979   255 
19.1348 -6.7741 1.7976   255 
19.1454 -6.7742 1.7987   255 
19.1535 -6.7741 1.7976   255 
19.1602 -6.7739 1.7983   255 
19.1666 -6.7743 1.7990   255 
19.1727 -6.7748 1.7987   255 
18.4810 -5.9853 1.7973   255 
18.4845 -5.9809 1.7979   255 
18.4873 -5.9826 1.7977   255 
18.5969 -5.9763 1.7970   255 
18.6547 -5.9759 1.7993   255 
18.7265 -5.9794 1.7981   255 
18.7349 -5.8617 1.7971   255 
18.7380 -5.8259 1.7991   255 
18.8222 -6.0879 1.7982   255 
18.8282 -6.0645 1.7983   255 
18.8282 -6.0414 1.7973   255 
18.8283 -6.0517 1.7982   255 
18.8286 -6.0472 1.7988   255 
18.8341 -5.9864 1.7982   255 
18.8341 -5.9814 1.7987   255 
18.8342 -5.9888 1.7986   255 
18.8343 -5.9573 1.7983   255 
18.8344 -5.9219 1.7981   255 
18.8345 -5.9048 1.7980   255 
18.8345 -5.9751 1.7989   255 
18.8346 -5.9436 1.7981   255 
18.8347 -5.9396 1.7971   255 
18.8347 -5.9515 1.7977   255 
18.8349 -5.9687 1.7985   255 
18.8349 -5.9634 1.7984   255 
18.8400 -5.8174 1.7971   255 
18.8401 -5.8837 1.7990   255 
18.8403 -5.8789 1.7982   255 
18.8404 -5.8669 1.7982   255 
18.8406 -5.8553 1.7970   255 
18.8409 -5.8714 1.7987   255 
18.8409 -5.8319 1.7975   255 
18.8410 -5.8603 1.7975   255 
18.8467 -5.7531 1.7991   255 
17.5642 -6.2562 1.8000   255 
17.5914 -6.2991 1.7997   255 
17.6425 -6.3816 1.8001   255 
17.6630 -6.4275 1.7997   255 
17.6769 -6.4476 1.8001   255 
17.6810 -6.4629 1.7999   255 
17.6900 -6.4793 1.8000   255 
17.7214 -6.5548 1.8001   255 
17.7309 -6.5740 1.8000   255 
17.7356 -6.5896 1.8000   255 
17.7439 -6.6108 1.8002   255 
17.7443 -6.6148 1.8001   255 
17.7466 -6.6269 1.8001   255 
17.7502 -6.6294 1.8002   255 
17.7531 -6.6419 1.8002   255 
17.7763 -6.7032 1.8001   255 
17.7841 -6.7196 1.8000   255 
17.7961 -6.7373 1.8000   255 
17.7964 -6.7412 1.8002   255 
17.8276 -6.7485 1.7998   255 
17.8701 -6.7783 1.8001   255 
18.1527 -6.8221 1.8001   255 
18.1884 -6.8205 1.8002   255 
18.2092 -6.8221 1.7999   255 
18.2375 -6.8221 1.8000   255 
18.2549 -6.8221 1.7996   255 
18.2958 -6.8222 1.8000   255 
18.4553 -6.1376 1.8002   255 
18.4564 -6.1374 1.8002   255 
18.4621 -6.1221 1.7996   255 
18.4660 -6.1193 1.8002   255 
18.4732 -6.1173 1.8002   255 
18.4905 -6.8221 1.7994   255 
18.5706 -6.8215 1.8001   255 
17.9403 -5.7598 1.8000   255 
17.9498 -5.7676 1.8001   255 
17.9631 -5.7784 1.7999   255 
17.9818 -5.7901 1.8002   255 
18.0043 -5.8032 1.8000   255 
18.0102 -5.8084 1.8001   255 
18.0148 -5.8093 1.8001   255 
18.0217 -5.8142 1.8001   255 
18.0668 -5.8379 1.8002   255 
18.0883 -5.8501 1.8000   255 
18.0925 -5.8525 1.8002   255 
18.1084 -5.8597 1.8001   255 
18.1508 -5.8781 1.8001   255 
18.1669 -5.8861 1.8002   255 
18.2004 -5.8979 1.7998   255 
18.2175 -5.9053 1.8002   255 
18.2343 -5.9098 1.8001   255 
18.2674 -5.9231 1.8002   255 
18.3980 -5.9594 1.8002   255 
18.4756 -6.1079 1.8000   255 
18.4769 -6.1126 1.8001   255 
18.4774 -6.0655 1.8000   255 
18.4786 -6.1004 1.8002   255 
18.4787 -6.0581 1.8002   255 
18.4789 -6.0777 1.8002   255 
18.4796 -6.0464 1.8002   255 
18.4797 -6.0222 1.8002   255 
18.4798 -6.0320 1.8000   255 
18.4804 -6.0557 1.7999   255 
18.4806 -6.0339 1.7999   255 
18.4813 -6.0238 1.7996   255 
18.4875 -5.9809 1.8001   255 
18.5232 -5.9730 1.8002   255 
18.5653 -5.9735 1.8000   255 
18.5894 -6.8234 1.8001   255 
18.6049 -6.8219 1.8001   255 
18.6621 -5.9781 1.8001   255 
18.7024 -5.9786 1.8000   255 
18.8144 -6.1538 1.8000   255 
18.8169 -6.1299 1.8000   255 
18.8180 -6.1185 1.8002   255 
18.8218 -6.0860 1.8000   255 
18.8220 -6.0958 1.7998   255 
18.8227 -6.1046 1.7998   255 
18.8275 -6.0692 1.8001   255 
18.8284 -6.0586 1.7995   255 
18.8287 -6.0719 1.7995   255 
18.8294 -6.0755 1.8000   255 
18.8302 -6.0462 1.8002   255 
18.8326 -6.0278 1.8000   255 
18.8335 -6.0116 1.8002   255 
18.8341 -6.0175 1.7997   255 
18.8350 -6.0058 1.8000   255 
18.8353 -5.9983 1.7999   255 
18.8933 -6.1560 1.8001   255 
18.9190 -6.1559 1.7996   255 
18.9470 -6.8219 1.8002   255 
18.9971 -6.1597 1.8002   255 
19.0512 -6.1604 1.8002   255 
19.0644 -6.1627 1.8002   255 
19.0702 -6.1631 1.8001   255 
19.1052 -6.7745 1.8002   255 
19.1065 -6.7726 1.8001   255 
19.1159 -6.7743 1.8002   255 
19.1239 -6.7744 1.8002   255 
19.1284 -6.1587 1.8001   255 
19.1472 -6.7745 1.7997   255 
19.1601 -6.7731 1.8002   255 
18.6002 -5.9764 1.8001   255 
18.6212 -5.9761 1.8001   255 
18.6243 -5.9758 1.8002   255 
18.7286 -5.9760 1.8001   255 
18.7296 -5.9637 1.8001   255 
18.7315 -5.9441 1.8001   255 
18.7346 -5.8799 1.8002   255 
18.7375 -5.8370 1.8000   255 
18.8330 -5.9089 1.8001   255 
18.8359 -5.9211 1.8001   255 
18.8371 -5.9151 1.8002   255 
18.8371 -5.9569 1.8001   255 
18.8379 -5.9019 1.8001   255 
18.8397 -5.8277 1.8002   255 
18.8399 -5.8902 1.8002   255 
18.8401 -5.8905 1.7999   255 
18.8401 -5.8942 1.8000   255 
18.8404 -5.8990 1.8000   255 
18.8440 -5.8364 1.8000   255 
18.8442 -5.7951 1.8002   255 
18.8455 -5.7826 1.8001   255 
18.8456 -5.7850 1.8000   255 
18.8459 -5.7707 1.8001   255 
18.8460 -5.7515 1.8002   255 
18.8460 -5.7891 1.7998   255 
18.8461 -5.7702 1.7995   255 
18.8462 -5.7928 1.7999   255 
18.8463 -5.7634 1.7995   255 
18.8463 -5.8093 1.7999   255 
18.8464 -5.7773 1.7994   255 
18.8466 -5.7535 1.8002   255 
18.8466 -5.7598 1.7995   255 
18.8468 -5.8004 1.8000   255 
18.8468 -5.7818 1.7998   255 
17.6933 -5.5307 1.7970   255 
17.6941 -5.5258 1.7978   255 
17.7180 -5.5560 1.7975   255 
17.7962 -5.6332 1.7979   255 
17.8315 -5.6706 1.7970   255 
18.7438 -5.7239 1.7974   255 
18.7439 -5.7119 1.7978   255 
18.7500 -5.5902 1.7997   255 
18.7503 -5.6117 1.7997   255 
18.8461 -5.7234 1.7979   255 
18.8462 -5.7474 1.7993   255 
18.8463 -5.7278 1.7983   255 
18.8464 -5.7177 1.7970   255 
18.8520 -5.6859 1.7999   255 
18.8520 -5.6626 1.7992   255 
18.8521 -5.6709 1.7994   255 
18.8521 -5.6400 1.7993   255 
18.8521 -5.6951 1.7997   255 
18.8521 -5.6685 1.7995   255 
18.8523 -5.6377 1.7984   255 
18.8525 -5.6489 1.7991   255 
18.8528 -5.6206 1.7979   255 
18.8529 -5.6093 1.7972   255 
18.8529 -5.6149 1.7971   255 
18.8530 -5.6579 1.7999   255 
18.8530 -5.6762 1.7997   255 
18.8533 -5.6330 1.7989   255 
18.8581 -5.5316 1.7980   255 
18.8583 -5.5132 1.7975   255 
18.8584 -5.5353 1.7987   255 
18.8584 -5.5510 1.7996   255 
18.8585 -5.5410 1.7989   255 
18.8586 -5.5198 1.7986   255 
18.8586 -5.5491 1.7999   255 
18.8588 -5.5254 1.7987   255 
17.5617 -5.3349 1.7971   255 
17.5619 -4.2779 1.7987   255 
17.5910 -4.2294 1.7971   255 
18.5644 -4.6387 1.7985   255 
18.6005 -4.8563 1.7995   255 
18.6119 -4.9655 1.7987   255 
18.6274 -4.9803 1.7979   255 
18.7618 -5.3013 1.7988   255 
18.7620 -5.2977 1.7977   255 
18.7620 -5.3082 1.7974   255 
18.7621 -5.3357 1.7980   255 
18.7679 -5.1538 1.7983   255 
18.7681 -5.2040 1.7972   255 
18.7683 -5.1932 1.7994   255 
18.7736 -4.8745 1.7976   255 
18.7739 -4.8786 1.7994   255 
18.7741 -4.7632 1.7991   255 
18.7742 -4.7873 1.7972   255 
18.7742 -4.7751 1.7980   255 
18.7743 -5.0145 1.7977   255 
18.7744 -5.0084 1.7988   255 
18.7745 -5.0037 1.7975   255 
18.7746 -4.7982 1.7984   255 
18.7751 -4.8706 1.7971   255 
18.7765 -4.8840 1.7984   255 
18.7879 -4.8779 1.7977   255 
18.8166 -4.8783 1.7981   255 
18.8583 -4.8727 1.7984   255 
18.8584 -5.5075 1.7990   255 
18.8585 -5.4715 1.7988   255 
18.8585 -5.4896 1.7978   255 
18.8589 -5.4821 1.7984   255 
18.8590 -5.4759 1.7980   255 
18.8596 -5.4946 1.7976   255 
18.8641 -5.3930 1.7990   255 
18.8641 -5.4458 1.7999   255 
18.8641 -5.3838 1.7979   255 
18.8641 -5.4106 1.7981   255 
18.8642 -5.4284 1.7996   255 
18.8643 -5.4519 1.7995   255 
18.8644 -5.4053 1.7977   255 
18.8644 -5.4394 1.7990   255 
18.8648 -5.4350 1.7995   255 
18.8648 -5.4225 1.7984   255 
18.8648 -5.4169 1.7987   255 
18.8659 -5.3998 1.7990   255 
18.8700 -5.3762 1.8000   255 
18.8701 -5.3468 1.7991   255 
18.8701 -5.3317 1.7982   255 
18.8702 -5.3654 1.7993   255 
18.8702 -5.2937 1.7973   255 
18.8703 -5.2135 1.7975   255 
18.8703 -5.3206 1.7980   255 
18.8704 -5.3044 1.7995   255 
18.8704 -5.3022 1.7984   255 
18.8704 -5.3387 1.7987   255 
18.8705 -5.3252 1.7990   255 
18.8705 -5.3568 1.7994   255 
18.8708 -5.2849 1.7976   255 
18.8708 -5.3145 1.7983   255 
18.8709 -5.3628 1.7993   255 
18.8710 -5.3456 1.7986   255 
18.8760 -5.2374 1.7997   255 
18.8760 -5.2179 1.7989   255 
18.8761 -5.2388 1.7997   255 
18.8762 -5.2316 1.7988   255 
18.8765 -5.2462 1.7996   255 
18.8766 -5.2082 1.7986   255 
18.8642 -4.8761 1.7975   255 
18.8714 -4.8720 1.7972   255 
18.8761 -5.1892 1.7982   255 
18.8765 -5.1839 1.7972   255 
18.8766 -5.1296 1.7975   255 
18.8766 -5.1929 1.7978   255 
18.8766 -5.2071 1.7980   255 
18.8766 -5.1771 1.7973   255 
18.8767 -5.1220 1.7972   255 
18.8767 -5.1699 1.7974   255 
18.8767 -5.2013 1.7981   255 
18.8769 -5.1473 1.7975   255 
18.8769 -5.1357 1.7998   255 
18.8821 -5.0369 1.7981   255 
18.8821 -5.0930 1.7991   255 
18.8822 -5.0634 1.7991   255 
18.8824 -5.0824 1.7991   255 
18.8824 -5.0478 1.7996   255 
18.8824 -5.0567 1.7990   255 
18.8825 -5.0800 1.7997   255 
18.8826 -5.0691 1.7991   255 
18.8826 -5.0746 1.7989   255 
18.8826 -5.0454 1.7999   255 
18.8828 -4.9618 1.7983   255 
18.8831 -4.8768 1.7986   255 
18.8832 -5.0948 1.7993   255 
18.8881 -4.9165 1.7998   255 
18.8882 -4.8894 1.7998   255 
18.8882 -4.9458 1.7999   255 
18.8882 -4.8937 1.7992   255 
18.8882 -4.9439 1.7999   255 
18.8884 -4.9363 1.7998   255 
18.8884 -4.9089 1.7995   255 
18.8888 -4.9013 1.7994   255 
17.5645 -5.3436 1.8002   255 
17.5922 -5.3932 1.8001   255 
17.6201 -5.4343 1.8000   255 
17.6214 -5.4375 1.8002   255 
17.6601 -5.4876 1.8001   255 
17.6876 -5.5211 1.8001   255 
17.7215 -5.5594 1.8001   255 
17.7360 -5.5734 1.8002   255 
17.8815 -5.7154 1.8002   255 
17.9091 -5.7373 1.8002   255 
17.9155 -5.7441 1.8001   255 
18.6251 -4.9788 1.8000   255 
18.7440 -5.7285 1.8000   255 
18.7452 -5.6934 1.8002   255 
18.7476 -5.6451 1.8001   255 
18.7487 -5.6205 1.8002   255 
18.7500 -5.6017 1.8001   255 
18.7538 -5.5138 1.8001   255 
18.7562 -5.4599 1.8002   255 
18.7569 -5.4478 1.8002   255 
18.7569 -5.4406 1.8001   255 
18.7575 -5.4177 1.8000   255 
18.7584 -5.4058 1.8000   255 
18.7622 -5.3197 1.8002   255 
18.7632 -5.2854 1.8000   255 
18.7645 -5.2666 1.8001   255 
18.7646 -5.2554 1.8002   255 
18.7657 -5.2248 1.8002   255 
18.7664 -5.2140 1.8000   255 
18.7668 -5.2007 1.8002   255 
18.7692 -5.1180 1.8001   255 
18.7701 -5.0934 1.8002   255 
18.7707 -5.0877 1.8001   255 
18.7731 -4.9976 1.8002   255 
17.5811 -4.2474 1.8002   255 
17.5885 -4.2357 1.8001   255 
18.5591 -4.8410 1.8001   255 
18.5609 -4.7628 1.8001   255 
18.5612 -4.7759 1.8001   255 
18.5619 -4.7333 1.8000   255 
18.5640 -4.6413 1.8000   255 
18.5835 -4.6315 1.8000   255 
18.5888 -4.6319 1.8001   255 
18.6113 -4.9596 1.8001   255 
18.6114 -4.9430 1.8001   255 
18.6119 -4.8625 1.8001   255 
18.6121 -4.9672 1.8001   255 
18.6123 -4.9617 1.8002   255 
18.6126 -4.9140 1.8002   255 
18.6126 -4.8659 1.8001   255 
18.6127 -4.8771 1.8000   255 
18.6199 -4.9767 1.8002   255 
18.6242 -4.6317 1.8001   255 
18.6372 -4.6318 1.8000   255 
18.6483 -4.6317 1.8002   255 
18.6543 -4.6327 1.8002   255 
18.6604 -4.6327 1.8001   255 
18.6966 -4.6319 1.8001   255 
18.7021 -4.6320 1.8002   255 
18.7082 -4.6314 1.8001   255 
18.7320 -4.6314 1.8002   255 
18.7564 -4.6500 1.8000   255 
18.7651 -4.6471 1.8000   255 
18.7680 -4.6751 1.8001   255 
18.7693 -4.6906 1.8001   255 
18.7703 -4.7155 1.8002   255 
18.7709 -4.7272 1.8002   255 
18.7736 -4.8292 1.8001   255 
18.8432 -5.7348 1.8000   255 
18.8434 -5.7463 1.8001   255 
18.8475 -5.7302 1.8000   255 
18.8497 -5.7113 1.8001   255 
18.8500 -5.6517 1.8000   255 
18.8507 -5.7051 1.8002   255 
18.8534 -5.6631 1.8002   255 
18.8539 -5.5612 1.8001   255 
18.8553 -5.5720 1.8002   255 
18.8570 -5.4699 1.8000   255 
18.8575 -5.4804 1.8000   255 
18.8575 -5.5796 1.8001   255 
18.8579 -5.5362 1.8000   255 
18.8583 -5.5740 1.8000   255 
18.8611 -5.4958 1.8002   255 
18.8621 -5.4473 1.8002   255 
18.8627 -5.3870 1.8000   255 
18.8634 -5.4295 1.8000   255 
18.8637 -5.3880 1.8000   255 
18.8649 -5.4353 1.8002   255 
18.8649 -5.3928 1.8001   255 
18.8651 -5.4233 1.8002   255 
18.8653 -5.4175 1.8002   255 
18.8685 -5.3578 1.8002   255 
18.8694 -5.3611 1.8002   255 
18.8694 -5.3516 1.8001   255 
18.8695 -5.3068 1.8001   255 
18.8698 -5.3457 1.8002   255 
18.8703 -5.3690 1.8001   255 
18.8706 -5.3634 1.8002   255 
18.8725 -5.3212 1.8002   255 
18.8735 -5.2789 1.8002   255 
18.8740 -5.2853 1.8001   255 
18.8741 -5.2732 1.8000   255 
18.7741 -4.7935 1.8002   255 
18.7743 -5.0121 1.8001   255 
18.7743 -5.0084 1.8001   255 
18.8045 -4.8794 1.8001   255 
18.8287 -4.8772 1.8002   255 
18.8400 -4.8758 1.8001   255 
18.8462 -4.8760 1.8000   255 
18.8581 -4.8762 1.8002   255 
18.8634 -4.8713 1.8002   255 
18.8693 -4.8711 1.8002   255 
18.8748 -5.2490 1.8002   255 
18.8761 -4.8710 1.8001   255 
18.8771 -5.2067 1.8002   255 
18.8781 -5.0517 1.8000   255 
18.8784 -5.1285 1.8001   255 
18.8801 -5.1413 1.8002   255 
18.8810 -5.0757 1.8001   255 
18.8819 -5.0920 1.8001   255 
18.8829 -5.0747 1.8001   255 
18.8832 -5.0453 1.8001   255 
18.8834 -5.0695 1.8000   255 
18.8836 -4.9613 1.8001   255 
18.8848 -4.9537 1.8001   255 
18.8850 -4.8713 1.8002   255 
18.8851 -4.9906 1.8001   255 
18.8856 -5.0036 1.8001   255 
18.8860 -4.9855 1.8000   255 
18.8868 -4.9789 1.8001   255 
18.8868 -4.9371 1.8002   255 
18.8868 -4.9722 1.8000   255 
18.8870 -4.9252 1.8000   255 
18.8874 -4.8889 1.8000   255 
18.8881 -4.9219 1.8000   255 
18.8885 -4.9064 1.8000   255 
19.1859 -6.7729 1.7975   255 
19.1964 -6.7729 1.7972   255 
19.2274 -6.7735 1.7975   255 
19.2330 -6.7746 1.7984   255 
19.2624 -6.7742 1.7971   255 
19.2700 -6.7739 1.7973   255 
19.2768 -6.7749 1.7970   255 
19.2833 -6.7740 1.7970   255 
19.2874 -6.7734 1.7971   255 
19.2968 -6.7740 1.7982   255 
19.4007 -6.7800 1.7978   255 
19.4720 -6.7798 1.7975   255 
19.6185 -6.7620 1.7970   255 
19.6537 -6.7615 1.7986   255 
19.6836 -6.7622 1.7981   255 
19.6934 -6.7612 1.7981   255 
19.7066 -6.7609 1.7972   255 
19.7202 -6.7623 1.7980   255 
19.7248 -6.7617 1.7979   255 
19.7351 -6.7621 1.7975   255 
19.7411 -6.7621 1.7980   255 
19.7444 -6.7608 1.7973   255 
19.7592 -6.7625 1.7977   255 
19.7687 -6.7622 1.7973   255 
19.7739 -6.7455 1.7983   255 
19.9319 -6.6507 1.7986   255 
19.9390 -6.6532 1.7983   255 
20.1283 -6.6615 1.7973   255 
20.1787 -6.6526 1.7972   255 
20.2586 -6.6504 1.7983   255 
20.2731 -6.6485 1.7973   255 
20.5448 -6.6504 1.7975   255 
20.6426 -6.6531 1.7970   255 
20.6475 -6.6535 1.7976   255 
20.6555 -6.6516 1.7973   255 
19.7908 -6.5760 1.7971   255 
19.7974 -6.6242 1.7979   255 
19.9262 -6.6374 1.7975   255 
19.9801 -6.6405 1.7974   255 
19.9818 -6.6179 1.7983   255 
20.1061 -6.6443 1.7974   255 
20.1065 -6.6415 1.7977   255 
20.1129 -6.6468 1.7978   255 
20.1372 -6.6449 1.7986   255 
20.1528 -6.6093 1.7974   255 
20.1664 -6.6419 1.7983   255 
20.1767 -6.6325 1.7981   255 
20.1782 -6.6221 1.7985   255 
20.1869 -6.6272 1.7984   255 
20.1946 -6.6318 1.7979   255 
20.2418 -6.6257 1.7985   255 
20.2441 -6.6391 1.7976   255 
20.2446 -6.6063 1.7973   255 
20.2589 -6.6461 1.7984   255 
20.2874 -6.6409 1.7971   255 
20.2982 -6.6420 1.7985   255 
20.3022 -6.5673 1.7978   255 
20.3110 -6.6393 1.7972   255 
20.3319 -6.6267 1.7978   255 
20.3323 -6.6359 1.7974   255 
20.4355 -6.6279 1.7984   255 
20.4363 -6.6324 1.7981   255 
20.4394 -6.6226 1.7970   255 
20.4761 -6.6227 1.7980   255 
20.4800 -6.6353 1.7974   255 
20.4880 -6.6370 1.7971   255 
20.4946 -6.6355 1.7986   255 
20.5500 -6.6308 1.7973   255 
20.5504 -6.6460 1.7983   255 
21.3066 -6.7651 1.7972   255 
21.3132 -6.7654 1.7971   255 
21.3197 -6.7657 1.7971   255 
21.3262 -6.7660 1.7970   255 
21.3328 -6.7663 1.7970   255 
21.3361 -6.7644 1.7972   255 
21.3450 -6.7663 1.7976   255 
21.3492 -6.7650 1.7971   255 
21.4373 -6.7681 1.7983   255 
21.6193 -6.7653 1.7978   255 
21.7170 -6.7627 1.7971   255 
21.7401 -6.7626 1.7971   255 
21.7468 -6.7611 1.7973   255 
21.7501 -6.7614 1.7972   255 
21.7532 -6.7637 1.7970   255 
21.7566 -6.7620 1.7972   255 
21.7631 -6.7625 1.7972   255 
21.7697 -6.7631 1.7971   255 
21.7829 -6.7622 1.7972   255 
21.7887 -6.7635 1.7970   255 
21.7994 -6.7617 1.7973   255 
21.8060 -6.7623 1.7972   255 
21.8123 -6.7628 1.7977   255 
21.8548 -6.7622 1.7971   255 
21.8788 -6.7614 1.7979   255 
21.9100 -6.7640 1.7976   255 
21.9447 -6.7615 1.7976   255 
21.9766 -6.7612 1.7971   255 
21.9810 -6.7619 1.7972   255 
22.0158 -6.7729 1.7975   255 
22.0278 -6.7650 1.7976   255 
22.0332 -6.7878 1.7970   255 
22.0340 -6.7997 1.7978   255 
22.0357 -6.7736 1.7983   255 
20.6840 -6.6540 1.7983   255 
20.6963 -6.6172 1.7976   255 
20.6974 -6.6235 1.7973   255 
20.8017 -6.6389 1.7984   255 
20.8188 -6.6356 1.7979   255 
20.8250 -6.6342 1.7985   255 
20.8342 -6.6334 1.7971   255 
20.8396 -6.5918 1.7974   255 
20.8434 -6.5949 1.7972   255 
20.8715 -6.6416 1.7977   255 
20.9141 -6.6500 1.7982   255 
20.9145 -6.6471 1.7984   255 
21.0002 -6.6243 1.7982   255 
21.0154 -6.6411 1.7983   255 
21.0432 -6.6475 1.7979   255 
21.0470 -6.7188 1.7977   255 
21.0480 -6.6551 1.7977   255 
21.0483 -6.6786 1.7984   255 
21.0494 -6.7374 1.7982   255 
21.0853 -6.7533 1.7979   255 
21.1252 -6.7495 1.7980   255 
21.1423 -6.7504 1.7986   255 
21.2135 -6.7499 1.7981   255 
21.2252 -6.7517 1.7979   255 
21.2296 -6.7517 1.7978   255 
21.2376 -6.7497 1.7976   255 
21.2430 -6.7514 1.7974   255 
21.2473 -6.7497 1.7985   255 
21.2831 -6.7486 1.7981   255 
21.2923 -6.7536 1.7978   255 
21.7205 -6.7609 1.7972   255 
21.9381 -6.7609 1.7976   255 
22.0209 -6.7596 1.7980   255 
22.0275 -6.7603 1.7979   255 
19.1785 -6.7746 1.7992   255 
19.1931 -6.7733 1.7987   255 
19.2386 -6.7730 1.8002   255 
19.2475 -6.7736 1.8001   255 
19.2683 -6.7750 1.8001   255 
19.4641 -6.7807 1.8001   255 
19.4680 -6.7800 1.7993   255 
19.5245 -6.7742 1.7995   255 
19.7720 -6.6893 1.8001   255 
19.7725 -6.7010 1.8000   255 
19.7726 -6.6932 1.8001   255 
19.7726 -6.7417 1.8000   255 
19.7752 -6.6636 1.7998   255 
19.7828 -6.6513 1.7990   255 
19.7889 -6.6508 1.7987   255 
19.7949 -6.6468 1.7991   255 
19.7953 -6.6521 1.7989   255 
19.9387 -6.6556 1.8001   255 
19.9453 -6.6539 1.7988   255 
19.9453 -6.6550 1.8001   255 
19.9512 -6.6549 1.8001   255 
19.9666 -6.6555 1.8001   255 
19.9751 -6.6518 1.7995   255 
20.0692 -6.6491 1.7999   255 
20.0882 -6.6476 1.7997   255 
20.0926 -6.6468 1.8001   255 
20.1717 -6.6501 1.7998   255 
20.1758 -6.6522 1.7996   255 
20.1807 -6.6548 1.7991   255 
20.2001 -6.6507 1.7991   255 
20.2583 -6.6491 1.8002   255 
20.3731 -6.6511 1.7996   255 
20.3751 -6.6472 1.8001   255 
20.3775 -6.6506 1.8000   255 
19.7831 -6.5859 1.8002   255 
19.7849 -6.5966 1.7996   255 
19.7867 -6.5740 1.7997   255 
19.8050 -6.6388 1.7988   255 
19.9793 -6.6451 1.7986   255 
19.9795 -6.6349 1.8002   255 
19.9808 -6.6330 1.8000   255 
20.0754 -6.6371 1.7994   255 
20.0758 -6.6343 1.7997   255 
20.0842 -6.6455 1.7995   255 
20.0979 -6.6404 1.7991   255 
20.1136 -6.6385 1.7994   255 
20.1203 -6.6467 1.7995   255 
20.1259 -6.6462 1.7992   255 
20.1316 -6.6455 1.7996   255 
20.1436 -6.6443 1.7987   255 
20.1632 -6.6205 1.7995   255 
20.1906 -6.6376 1.7993   255 
20.1969 -6.6387 1.7995   255 
20.1978 -6.6358 1.7996   255 
20.2367 -6.6294 1.7999   255 
20.2439 -6.6393 1.7997   255 
20.2466 -6.5822 1.7992   255 
20.2840 -6.6433 1.7987   255 
20.3320 -6.6268 1.8001   255 
20.3571 -6.6370 1.7988   255 
20.3673 -6.6006 1.7999   255 
20.4261 -6.6217 1.8002   255 
20.4309 -6.6286 1.8001   255 
20.4312 -6.6360 1.7995   255 
20.4336 -6.6216 1.7987   255 
20.4397 -6.6377 1.8001   255 
20.4714 -6.6234 1.7997   255 
20.4817 -6.5880 1.7989   255 
20.5415 -6.6546 1.7990   255 
20.6622 -6.6518 1.7995   255 
20.6671 -6.6520 1.7998   255 
20.6722 -6.6516 1.7991   255 
20.6789 -6.6534 1.7989   255 
20.9088 -6.6534 1.7998   255 
21.0474 -6.6660 1.7992   255 
21.0485 -6.7179 1.8001   255 
21.0487 -6.7492 1.8002   255 
21.0746 -6.7496 1.7992   255 
21.0848 -6.7496 1.7993   255 
21.1602 -6.7496 1.7997   255 
21.1658 -6.7502 1.7988   255 
21.1819 -6.7496 1.7994   255 
21.1890 -6.7490 1.7993   255 
21.1958 -6.7509 1.7987   255 
21.2418 -6.7486 1.7987   255 
21.2581 -6.7492 1.7986   255 
21.2984 -6.7568 1.7997   255 
21.3017 -6.7616 1.8000   255 
21.3859 -6.7644 1.8001   255 
21.4408 -6.7680 1.8000   255 
21.4769 -6.7681 1.8000   255 
21.5361 -6.7658 1.8001   255 
21.5459 -6.7681 1.7997   255 
21.5503 -6.7682 1.7996   255 
21.5886 -6.7653 1.8002   255 
21.6084 -6.7647 1.8002   255 
21.6380 -6.7648 1.8002   255 
21.7126 -6.7617 1.7987   255 
21.7826 -6.7614 1.7987   255 
21.9626 -6.7617 1.7997   255 
21.9673 -6.7616 1.7995   255 
22.0381 -6.8004 1.7994   255 
20.4938 -6.5828 1.7993   255 
20.4978 -6.6279 1.7998   255 
20.5422 -6.6414 1.8001   255 
20.5515 -6.6252 1.7997   255 
20.5542 -6.6409 1.7990   255 
20.5566 -6.6291 1.7994   255 
20.6415 -6.6411 1.8000   255 
20.6506 -6.6503 1.8000   255 
20.6572 -6.6478 1.7998   255 
20.6916 -6.6360 1.7993   255 
20.6920 -6.6450 1.7989   255 
20.7908 -6.6409 1.7996   255 
20.8062 -6.6386 1.7989   255 
20.8086 -6.6423 1.7988   255 
20.8164 -6.6398 1.7996   255 
20.8356 -6.6347 1.8001   255 
20.8462 -6.6414 1.7998   255 
20.8531 -6.6277 1.7994   255 
20.8602 -6.6402 1.7991   255 
20.8653 -6.6407 1.7994   255 
20.8688 -6.6287 1.7995   255 
20.8743 -6.6331 1.8002   255 
20.8955 -6.6208 1.8001   255 
20.9002 -6.6157 1.8001   255 
20.9167 -6.6431 1.7989   255 
20.9206 -6.6381 1.7996   255 
20.9289 -6.6248 1.7990   255 
21.0031 -6.6331 1.8001   255 
21.0054 -6.6368 1.8000   255 
21.0066 -6.6387 1.8000   255 
21.0208 -6.6401 1.7987   255 
21.0291 -6.6404 1.7995   255 
21.0354 -6.6392 1.8001   255 
21.0454 -6.6514 1.8001   255 
19.7174 -6.5237 1.7974   255 
19.7224 -6.5218 1.7983   255 
19.7471 -6.5100 1.7986   255 
19.7803 -6.5518 1.7984   255 
19.7861 -6.5647 1.7977   255 
19.7882 -6.5604 1.7971   255 
19.7892 -6.5291 1.7981   255 
19.7912 -6.5502 1.7974   255 
19.7959 -6.5124 1.7971   255 
19.8009 -6.5104 1.7989   255 
19.8025 -6.5077 1.7986   255 
19.8045 -6.4987 1.7975   255 
19.8092 -6.5075 1.7988   255 
19.8394 -6.5230 1.7984   255 
19.9919 -6.5121 1.7992   255 
20.0775 -6.5177 1.7980   255 
20.0839 -6.5054 1.7980   255 
20.1140 -6.5272 1.7981   255 
20.1396 -6.4981 1.7987   255 
20.1462 -6.4993 1.7971   255 
20.2594 -6.5105 1.7982   255 
20.3148 -6.5214 1.7982   255 
20.3165 -6.5086 1.7986   255 
20.3198 -6.5255 1.7978   255 
20.3695 -6.4999 1.7991   255 
20.3709 -6.5106 1.7985   255 
20.3716 -6.5248 1.7984   255 
20.3766 -6.5092 1.7990   255 
20.3790 -6.5352 1.7982   255 
20.3875 -6.5215 1.7986   255 
20.3883 -6.5091 1.7974   255 
20.4235 -6.5037 1.7972   255 
20.4300 -6.4975 1.7977   255 
20.4875 -6.5035 1.7986   255 
20.5496 -6.4966 1.7987   255 
19.3898 -6.1622 1.7982   255 
19.4538 -6.1613 1.7978   255 
19.5251 -4.2474 1.7985   255 
19.5277 -4.2577 1.7978   255 
19.5315 -4.2628 1.7984   255 
19.5327 -4.2520 1.7989   255 
19.5353 -4.2669 1.7991   255 
19.5377 -4.2517 1.7979   255 
19.5391 -4.2676 1.7976   255 
19.5420 -4.2598 1.7990   255 
19.5502 -4.2650 1.7986   255 
19.5542 -4.2687 1.7989   255 
19.5744 -4.2961 1.7991   255 
19.5841 -4.2842 1.7984   255 
19.6736 -6.1922 1.7987   255 
19.6800 -6.2415 1.7986   255 
19.6861 -6.2991 1.7971   255 
20.2294 -6.4917 1.7973   255 
20.2502 -6.4792 1.7978   255 
20.2513 -6.4814 1.7984   255 
20.2975 -6.4928 1.7975   255 
20.2977 -6.4908 1.7977   255 
20.2983 -6.4890 1.7972   255 
20.3099 -6.4920 1.7980   255 
20.3494 -6.4938 1.7990   255 
20.3651 -6.4945 1.7991   255 
20.3689 -6.4737 1.7985   255 
20.3732 -6.4916 1.7982   255 
20.3882 -6.4738 1.7973   255 
20.4332 -6.4953 1.7978   255 
20.4364 -6.4892 1.7983   255 
20.5109 -6.4917 1.7980   255 
20.5122 -6.4846 1.7992   255 
20.5143 -6.4961 1.7986   255 
20.5589 -6.4933 1.7991   255 
20.5596 -6.4917 1.7979   255 
20.6046 -6.5081 1.7972   255 
20.6110 -6.5015 1.7976   255 
20.6146 -6.5047 1.7974   255 
20.6378 -6.5029 1.7975   255 
20.6573 -6.4923 1.7982   255 
20.6709 -6.4961 1.7981   255 
20.7109 -6.4960 1.7977   255 
20.7150 -6.4933 1.7970   255 
20.7153 -6.4911 1.7989   255 
20.7495 -6.4894 1.7981   255 
20.7685 -6.4909 1.7979   255 
20.8107 -6.4880 1.7979   255 
20.8340 -6.5197 1.7975   255 
20.8715 -6.5192 1.7990   255 
20.8730 -6.5082 1.7987   255 
20.8740 -6.5029 1.7991   255 
20.8764 -6.5077 1.7977   255 
20.8826 -6.5133 1.7987   255 
20.8889 -6.5080 1.7972   255 
20.8903 -6.5117 1.7981   255 
20.8948 -6.4882 1.7974   255 
20.8998 -6.5166 1.7991   255 
20.9214 -6.5136 1.7992   255 
20.9474 -6.5106 1.7987   255 
20.9637 -6.5166 1.7986   255 
20.9695 -6.4948 1.7975   255 
20.9762 -6.4949 1.7975   255 
20.9820 -6.5013 1.7979   255 
20.9835 -6.5042 1.7979   255 
21.0368 -6.4919 1.7984   255 
21.1083 -6.5063 1.7976   255 
21.1143 -6.4866 1.7988   255 
20.5594 -6.4851 1.7970   255 
20.5595 -6.4800 1.7979   255 
20.8986 -6.4822 1.7979   255 
20.9063 -6.4733 1.7986   255 
20.9101 -6.4823 1.7978   255 
20.9177 -6.4814 1.7978   255 
21.1140 -6.4847 1.7972   255 
21.1443 -6.3673 1.7983   255 
21.1679 -6.2635 1.7983   255 
21.1859 -6.1907 1.7973   255 
21.2419 -6.1681 1.7973   255 
21.3530 -6.1619 1.7989   255 
21.3565 -6.1618 1.7991   255 
21.3923 -6.1615 1.7971   255 
21.5633 -4.2891 1.7971   255 
21.7558 -4.4018 1.7979   255 
21.7677 -4.3253 1.7975   255 
21.7797 -4.4341 1.7976   255 
21.7799 -4.2532 1.7973   255 
21.7801 -4.2543 1.7983   255 
21.7914 -5.7464 1.7982   255 
21.7919 -5.7023 1.7987   255 
21.7923 -5.8660 1.7979   255 
21.7977 -5.6268 1.7972   255 
21.7978 -5.6185 1.7984   255 
21.7982 -5.6194 1.7974   255 
21.8325 -5.5906 1.7984   255 
21.8527 -5.5859 1.7980   255 
21.8922 -5.5898 1.7973   255 
21.8992 -6.1559 1.7990   255 
21.9053 -5.5889 1.7979   255 
21.9158 -6.1559 1.7984   255 
21.9288 -6.1559 1.7972   255 
22.0337 -5.5919 1.7990   255 
19.6901 -6.3532 1.8002   255 
19.6921 -6.3715 1.7993   255 
19.6928 -6.3823 1.8002   255 
19.6954 -6.4239 1.8001   255 
19.6982 -6.4486 1.8000   255 
19.7015 -6.4792 1.8000   255 
19.7028 -6.4899 1.8000   255 
19.7041 -6.4978 1.8001   255 
19.7107 -6.5206 1.8002   255 
19.7224 -6.5243 1.8002   255 
19.7905 -6.5099 1.7992   255 
19.7969 -6.5095 1.7996   255 
19.8088 -6.5119 1.8001   255 
19.8126 -6.5039 1.7993   255 
19.9313 -6.5093 1.8000   255 
19.9324 -6.5095 1.8001   255 
19.9381 -6.5136 1.7998   255 
19.9898 -6.4982 1.7995   255 
19.9916 -6.4965 1.7994   255 
19.9964 -6.5033 1.7992   255 
19.9965 -6.5051 1.7997   255 
20.0215 -6.5396 1.8002   255 
20.0814 -6.4954 1.7995   255 
20.0940 -6.5067 1.7998   255 
20.0944 -6.5029 1.7996   255 
20.2179 -6.4972 1.8001   255 
20.2348 -6.4949 1.8002   255 
20.2513 -6.4778 1.8001   255 
20.3447 -6.4858 1.8002   255 
20.3560 -6.4797 1.8000   255 
20.3578 -6.4821 1.7993   255 
20.4070 -6.5106 1.8002   255 
20.4138 -6.5123 1.8000   255 
20.4196 -6.4786 1.8002   255 
19.2371 -6.1588 1.8001   255 
19.2968 -6.1601 1.8002   255 
19.3862 -6.1599 1.8001   255 
19.4631 -6.1616 1.8000   255 
19.4884 -4.2176 1.8001   255 
19.4945 -4.2111 1.8001   255 
19.5008 -6.1654 1.8001   255 
19.5012 -4.2171 1.8002   255 
19.5035 -4.2196 1.8001   255 
19.5073 -4.2340 1.8001   255 
19.5132 -4.2278 1.8001   255 
19.5239 -4.2370 1.8001   255 
19.5260 -4.2385 1.8000   255 
19.5277 -4.2604 1.7999   255 
19.5308 -4.2525 1.8002   255 
19.5336 -4.2478 1.8001   255 
19.5369 -4.2571 1.7996   255 
19.5410 -4.2603 1.7994   255 
19.5442 -4.2635 1.7997   255 
19.5543 -4.2691 1.8002   255 
19.5624 -4.2814 1.8001   255 
19.5684 -4.2740 1.8001   255 
19.5737 -4.2917 1.8000   255 
19.5841 -6.1648 1.8001   255 
19.5842 -4.2827 1.8002   255 
19.5844 -4.2848 1.8000   255 
19.5903 -4.2836 1.8001   255 
19.5928 -4.2852 1.8001   255 
19.5979 -4.2829 1.8002   255 
19.6321 -6.1653 1.8002   255 
19.6742 -6.1852 1.7992   255 
19.6806 -6.2448 1.8002   255 
19.6846 -6.2925 1.8001   255 
19.6860 -6.3040 1.8002   255 
20.4279 -6.4994 1.7994   255 
20.4304 -6.5097 1.8001   255 
20.4356 -6.5038 1.7994   255 
20.4432 -6.5082 1.7993   255 
20.5048 -6.5169 1.7999   255 
20.5432 -6.5021 1.8001   255 
20.5442 -6.5019 1.8001   255 
20.5463 -6.4975 1.8000   255 
20.5570 -6.4791 1.8002   255 
20.6046 -6.5080 1.8001   255 
20.7009 -6.5071 1.8002   255 
20.7010 -6.5039 1.8002   255 
20.7018 -6.5068 1.7992   255 
20.7126 -6.4946 1.8002   255 
20.7579 -6.4637 1.8001   255 
20.7617 -6.4638 1.8001   255 
20.8140 -6.4916 1.8002   255 
20.8400 -6.5153 1.8001   255 
20.8804 -6.5026 1.8002   255 
20.9253 -6.5116 1.7993   255 
20.9312 -6.5180 1.8001   255 
20.9361 -6.5192 1.8001   255 
20.9750 -6.5026 1.8002   255 
20.9766 -6.5028 1.8000   255 
20.9972 -6.4969 1.8001   255 
21.0973 -6.5162 1.7994   255 
21.1060 -6.5095 1.8001   255 
21.1518 -6.3354 1.8002   255 
21.1583 -6.3058 1.8002   255 
21.1655 -6.2749 1.8001   255 
21.1739 -6.2393 1.8001   255 
21.2232 -6.1677 1.8001   255 
21.2473 -6.1667 1.8001   255 
21.2521 -6.1667 1.8000   255 
